# .PCD v0.7 - Point Cloud Data file format
VERSION 0.7
FIELDS x y z
SIZE 4 4 4
TYPE F F F
COUNT 1 1 1
WIDTH 1362
HEIGHT 1
VIEWPOINT 0 0 0 1 0 0 0
POINTS 1362
DATA ascii
0.40805474 0.032104194 0.016827846
0.46672571 -0.11623736 -0.0069479714
0.4530724 -0.026488423 0.038533628
0.40162751 -0.098254919 -0.16578501
0.41040707 -0.14040472 -0.16453928
0.42810175 0.0022453882 0.03072289
0.42549634 0.010829663 0.032487102
0.41997305 0.017228959 0.030920839
0.41392776 0.023777381 0.028846191
0.4108012 0.030986965 0.031501904
0.40829274 0.035468128 0.024660541
0.47250977 -0.075224586 0.029128481
0.47228685 -0.050369237 0.052874569
0.43021563 0.0048106029 0.042560298
0.42639577 0.01098197 0.037446875
0.41363412 0.023759782 0.035633918
0.41101527 0.030165931 0.034627698
0.4078528 0.032705847 0.033746738
0.43278852 0.0029638349 0.052306693
0.4290159 0.010372078 0.044950187
0.42086545 0.018713854 0.046174757
0.41848639 0.017392239 0.045124829
0.40743172 0.026851494 0.039541341
0.40620294 0.036589291 0.0421982
0.43464908 0.0032770715 0.0577664
0.43026003 0.0083719827 0.050915305
0.41824251 0.015719211 0.055540528
0.41278279 0.014771444 0.050346173
0.40861988 0.026208535 0.049590025
0.4322035 0.0043231496 0.069233634
0.41105592 0.018899506 0.056209851
0.40927416 0.026604092 0.055188827
0.43496886 0.0027699317 0.074501179
0.40886992 0.025758892 0.06540098
2.6537306 0.61620235 1.6708326
0.37844491 0.007092067 -0.21479291
0.38515288 -0.022826396 -0.2127195
0.38473761 -0.017924033 -0.21205796
0.38402253 -0.014343585 -0.21471982
0.3829402 -0.007003767 -0.21157297
0.37871855 0.0071929027 -0.21009068
0.38740641 -0.045314729 -0.2085277
0.38658765 -0.03645806 -0.20864803
0.38623527 -0.030833991 -0.20863062
0.38566333 -0.021627311 -0.20491356
0.38527182 -0.018389016 -0.20525599
0.38325861 -0.0070399474 -0.2058768
0.38326201 -0.00667234 -0.2065798
0.38250646 -0.00042237772 -0.20257665
0.37902749 0.007135435 -0.20728396
0.38856921 -0.045103516 -0.19999459
0.3876242 -0.03539582 -0.19995958
0.38710698 -0.030101247 -0.20111445
0.38617367 -0.021570737 -0.19974305
0.38590115 -0.017883101 -0.19956999
0.38442141 -0.0080446927 -0.19845182
0.38321343 -0.0018468123 -0.19684088
0.38294119 0.0003747782 -0.19540411
0.3803212 0.0073544881 -0.19687878
0.38931525 -0.044852562 -0.19592911
0.38889307 -0.03490321 -0.19389157
0.38853687 -0.029788997 -0.19317609
0.38735434 -0.022372434 -0.19355458
0.38673425 -0.017797358 -0.19333085
0.38492823 -0.0095417788 -0.19417544
0.38324699 0.00017876647 -0.19263665
0.38322172 0.00061124668 -0.19263688
0.38094553 0.0091302572 -0.19211178
0.38976771 -0.035589177 -0.19021092
0.39001355 -0.034349877 -0.19025844
0.38960218 -0.026758265 -0.18833789
0.38950747 -0.023269331 -0.18548137
0.38748717 -0.016592951 -0.18931754
0.38573825 -0.0063075861 -0.18661329
0.38478678 -0.00080136955 -0.18336119
0.38469476 -0.00037444459 -0.18337385
0.38241303 0.0088070268 -0.18403804
0.39155626 -0.036129065 -0.18224896
0.39177489 -0.034175169 -0.18242213
0.39059457 -0.024703788 -0.18201812
0.39006591 -0.01968131 -0.1803031
0.38828418 -0.013259312 -0.18084128
0.38761261 -0.010419592 -0.18099301
0.38574159 -0.00081120699 -0.17795385
0.38401049 0.0067703938 -0.17637187
0.38353339 0.0099474415 -0.17690191
0.39303464 -0.035036962 -0.17426501
0.3931925 -0.033708729 -0.17357992
0.39234373 -0.026618198 -0.17310202
0.39135545 -0.021786265 -0.17268044
0.38906163 -0.011617437 -0.17228161
0.38871995 -0.007913216 -0.17059183
0.38687307 -0.00014253164 -0.17106152
0.38682076 0.0025186641 -0.1690494
0.38490382 0.0089004776 -0.17105876
0.39471215 -0.033847034 -0.16467746
0.39482686 -0.033248488 -0.16470867
0.39389378 -0.02703909 -0.16406584
0.39094847 -0.018791506 -0.17017099
0.38922584 -0.011211673 -0.17050393
0.38928995 -0.0074557886 -0.16781619
0.38737294 0.00053562608 -0.16868603
0.38558424 0.0078611467 -0.16894925
0.38719055 0.011500743 -0.16186041
0.39498895 -0.033632968 -0.16363852
0.39444399 -0.028668387 -0.16377644
0.3952792 -0.023141116 -0.15582456
0.39260474 -0.017922996 -0.16320741
0.39333248 -0.0069110063 -0.15428896
0.39125901 -0.0062576304 -0.16160463
0.38927302 0.0026681181 -0.16182277
0.38771555 0.01000476 -0.16156188
0.38752964 0.015581326 -0.15853553
0.40257913 -0.14740178 -0.1549702
0.39704853 -0.033632498 -0.15611763
0.39652684 -0.027591642 -0.15501353
0.39566225 -0.022079172 -0.15482956
0.39482394 -0.016641442 -0.15456241
0.39353368 -0.0067924657 -0.15383734
0.39268243 -0.0020608499 -0.15331535
0.39135164 0.0034254713 -0.15427166
0.3897405 0.011911859 -0.15177147
0.38902423 0.01500752 -0.15137881
0.39918905 -0.033550989 -0.14730817
0.39805195 -0.025043566 -0.14595748
0.39798275 -0.023677843 -0.14602867
0.39651585 -0.016136598 -0.14484519
0.39469224 -0.0057350863 -0.14470232
0.39443362 -0.0040924512 -0.14434782
0.39236233 0.0049017179 -0.14346117
0.39225549 0.0057646413 -0.14271675
0.39015806 0.014767588 -0.14198892
0.40673518 -0.13606854 -0.14371315
0.40297449 -0.048911233 -0.14220084
0.40029496 -0.031744301 -0.13872448
0.39914683 -0.026588961 -0.13812687
0.39902315 -0.026120687 -0.13811401
0.39673921 -0.016005635 -0.13930638
0.39537585 -0.0064105382 -0.13733962
0.39487302 -0.0037046338 -0.13715014
0.39290339 0.0028112207 -0.13359413
0.39282393 0.0056728874 -0.13839744
0.38975385 0.01517622 -0.13362822
0.40987372 -0.11089291 -0.13405284
0.40348232 -0.04824654 -0.13382506
0.40055162 -0.032114267 -0.13292557
0.39963666 -0.027349103 -0.13393342
0.39930731 -0.026267594 -0.13377991
0.39653376 -0.014065977 -0.13113169
0.3953459 -0.0068952669 -0.13231517
0.39500847 -0.0046505868 -0.13045335
0.39286292 0.0030640517 -0.134413
0.39292428 0.0064502917 -0.13398835
0.38975242 0.015818836 -0.13207519
0.39986342 -0.029266685 -0.1265133
0.399288 -0.026636938 -0.12657546
0.39567211 -0.0085046608 -0.12303931
0.39558107 -0.0076528015 -0.12242867
0.39340678 -0.00091680523 -0.12229035
0.39248958 0.003172012 -0.12315299
0.39230102 0.0070130643 -0.12540139
0.40247655 -0.039282788 -0.12142389
0.40111706 -0.031422123 -0.11811314
0.40097475 -0.027593782 -0.11505125
0.39894763 -0.017677467 -0.11659854
0.39638722 -0.0083357431 -0.117229
0.39616615 -0.0068379398 -0.11711107
0.40670365 -0.047926676 -0.1083657
0.40116403 -0.024327943 -0.10709728
0.39966765 -0.017917724 -0.11080079
0.40097439 -0.015318083 -0.10601801
0.39674973 -0.0077397451 -0.10945727
0.40287563 -0.025590669 -0.10244306
0.39765725 -0.011553693 -0.10701745
0.39592347 0.015512821 -0.098310269
0.39000711 0.021950033 -0.10514286
0.41483814 -0.078499615 -0.096663043
0.40834856 -0.049763545 -0.10195186
0.40611827 -0.030339492 -0.098521166
0.39551613 0.014292707 -0.0970755
0.39303315 0.021356553 -0.099360414
0.41324419 -0.049544219 -0.086233392
0.40621895 -0.024901599 -0.08988741
0.39793226 0.017489871 -0.086194813
0.39783102 0.022007978 -0.084344119
0.39953047 0.019484164 -0.080419526
0.39819789 0.02202533 -0.08313252
0.43996534 -0.15708572 -0.075285405
0.43483123 -0.14539461 -0.073611662
0.4319008 -0.13437325 -0.0752533
0.40195101 0.010918741 -0.075615235
0.40027353 0.020085702 -0.075463019
0.40102813 0.023342667 -0.072369412
0.43634373 -0.14616278 -0.072082147
0.41063845 0.0063555008 -0.056899812
1.2884791 -0.58426172 0.47115272
1.2779119 -0.56055886 0.46904325
0.44518232 -0.21495931 -0.13857508
0.38701463 0.074280143 -0.044313118
1.2813277 -0.56644452 0.45571482
1.2205338 -0.51814026 0.47441375
1.2625779 -0.53884679 0.47297639
0.41161618 -0.0028297466 0.0062568868
0.39316329 0.05312394 0.0019917407
0.46463507 -0.13895953 0.0060563684
0.42031157 -0.02793684 0.015990624
0.3364704 -0.01562677 0.073695563
0.30112097 0.0022805193 0.10190322
0.35666168 -0.072235622 0.17664087
0.34150597 -0.067038588 0.16544384
0.29554039 -0.029448338 0.15595287
0.27690145 0.00069069327 0.15655655
1.2432384 -0.47333869 0.4865455
0.30320626 -0.044959918 0.18222483
0.35409391 -0.079136789 0.20913328
0.3998839 -0.13486458 -0.14983891
0.37727901 0.0019112866 -0.10625865
0.44621676 -0.14802602 -0.049594771
0.44932532 -0.15264268 -0.04624185
0.41640943 0.014908157 -0.043332562
0.41532272 0.022160558 -0.043017514
0.45896134 -0.15365836 -0.031103767
0.42161381 0.012019521 -0.032540735
0.41880983 0.017723655 -0.032145169
0.41570029 0.022569422 -0.040457342
0.41486755 0.02746856 -0.03169632
0.45890132 -0.15299831 -0.030164888
0.42866752 -0.004981881 -0.023387238
0.42809772 0.0022312426 -0.023468826
0.42563286 0.0068672276 -0.023293052
0.42347091 0.012914779 -0.023595275
0.41923302 0.021938909 -0.026982954
0.4174974 0.023503061 -0.021958351
0.41486254 0.028570458 -0.031159528
0.41372719 0.040547144 -0.025707431
0.4310278 -0.0046137162 -0.015079256
0.42907351 0.002722143 -0.02081589
0.42591545 0.0070232926 -0.022689329
0.42446071 0.012829248 -0.022277568
0.4188197 0.022440944 -0.021359866
0.41791099 0.02296881 -0.021388572
0.41453302 0.036531001 -0.020971945
0.41457215 0.037122399 -0.021051181
0.43053192 -0.0031271838 -0.0098657236
0.43039995 -0.0026772467 -0.0099379607
0.42641219 0.0067001479 -0.010916224
0.42370886 0.011535931 -0.011458857
0.41911995 0.021385362 -0.011040587
0.41798061 0.022507695 -0.011070636
0.47158989 -0.13271278 0.0011760178
0.43019727 -0.0049610352 -0.0010685087
0.42726228 0.0018268939 -0.0034003202
0.42462119 0.0084210001 -0.0087528173
0.46679851 -0.12445387 -0.019568186
0.46805024 -0.12387774 -0.016018063
0.47150454 -0.12157044 -0.007598829
0.42111677 0.010232368 -0.00038772749
0.47498921 -0.11365259 0.0021603224
0.44584149 -0.039014004 -0.0093551362
0.48159236 -0.1143961 0.01076596
0.48103145 -0.10522784 0.014334025
0.48203701 -0.10338689 0.017523762
0.48111254 -0.097814187 0.018473729
0.47485813 -0.091050439 0.014877751
0.48698741 -0.097924918 0.025539855
0.47686964 -0.077978343 0.027527103
0.4769313 -0.072928347 0.029826107
0.45174453 -0.038964476 0.015186906
0.45114785 -0.030325288 0.020108152
0.49027655 -0.081754334 0.040236134
0.49064454 -0.08105588 0.041035395
0.47828591 -0.072741047 0.031579677
0.45609134 -0.03974288 0.020837707
0.45354643 -0.030213179 0.023542192
0.45457232 -0.025779648 0.023831459
0.48500264 -0.068379752 0.043089591
0.47942653 -0.053178921 0.045328651
0.4591113 -0.031350389 0.032527179
0.45685026 -0.021998342 0.033057127
0.46389484 -0.019776829 0.041592158
1.2344276 -0.5724445 0.52211702
1.2291617 -0.49511805 0.47851712
0.36841193 0.11724944 -0.062735051
0.36108705 0.11521839 -0.066122964
0.36382484 0.11742296 -0.061537664
0.36440939 0.1219795 -0.053533476
1.2617508 -0.61415243 0.56628776
1.2221369 -0.59493446 0.50849086
2.5291228 0.50924259 1.6838924
2.5022094 0.58148873 1.6908286
0.3508392 0.047799569 -0.17680278
0.40293214 -0.13479517 -0.14120135
0.38078329 0.0098512536 -0.095253378
0.37481815 0.057341192 -0.090268679
0.38799858 0.030378336 -0.081258096
0.4084186 0.0086504286 -0.013352161
0.39010912 0.064325936 -0.012249996
0.37920862 0.09442085 -0.0097501744
0.39120391 0.05410162 -0.0014929808
0.37558386 0.09810707 0.012071584
0.38813931 0.026504453 0.029632598
0.46893141 -0.10949998 0.031621106
0.4227348 -0.056940556 0.046751954
0.42942041 -0.055106878 0.055266295
0.2930001 0.0083440812 0.094395518
0.27924749 -0.006847966 0.14091726
0.33304897 -0.067381077 0.16159138
0.2874704 -0.026344547 0.15558612
1.2749975 -0.58292383 0.45917121
0.31123444 -0.060677703 0.18134068
0.37217695 0.011951074 -0.2245633
0.47902146 -0.075683974 0.049439296
0.47710207 -0.069725499 0.052687526
0.47986066 -0.066397734 0.057786375
0.47171929 -0.057829041 0.0572819
0.3614707 0.10689246 -0.08577358
0.3631489 0.10857296 -0.082914636
2.5847039 0.61992425 1.6914735
0.46021473 -0.073647752 0.049295515
0.45386669 -0.064597428 0.053833243
2.5371382 0.68427354 1.6710136
2.543926 0.72225434 1.664785
0.35292399 0.11079264 -0.084184207
0.35571319 0.11147796 -0.079927832
0.35463262 0.10820416 -0.073794216
2.5390453 0.66396707 1.6794555
1.2580526 -0.59106052 0.59707201
2.4815717 0.63756174 1.6895789
2.4600327 0.69048017 1.6712393
2.5682847 0.68503463 1.6328996
2.6180251 0.69748032 1.673661
2.6104338 0.73422515 1.6450938
2.6124446 0.74071628 1.6508404
0.34374127 0.064783864 -0.21521015
0.34959617 0.043471329 -0.18568847
0.37561926 0.0049596918 -0.10600901
0.36118329 0.073630176 -0.11236355
0.38052133 0.021017605 -0.091734715
0.40119061 -0.050253365 -0.077400558
0.38194117 0.050214779 -0.083190084
0.39360523 0.054961149 -0.041343998
0.39178279 0.055089109 -0.018583655
0.38445798 0.078054376 -0.015822854
0.37999269 0.064605847 0.010581739
0.37433663 0.073175944 0.018353019
0.41860822 -0.030688846 0.029223656
0.42151019 -0.027281458 0.037599254
0.37836155 0.0099165952 0.045114171
0.34719014 0.01312099 0.040972721
0.35629287 0.0048193056 0.051186219
0.35228974 0.0033291958 0.050170898
0.34107327 0.0060285311 0.046643853
0.32894686 0.015270104 0.04688393
0.37945628 -0.012336637 0.071830057
0.37228239 -0.0067022005 0.062360343
0.35184097 -0.0045586284 0.058685169
0.33903202 -0.0034264666 0.055787899
0.32969633 0.0053414418 0.052152906
0.31190568 0.0057323566 0.052061405
0.31076011 0.010016856 0.049937427
0.30254912 0.016586171 0.049490746
0.40694115 -0.018782958 0.079457462
0.32672065 -0.015344636 0.065150864
0.32221004 -0.012956986 0.064226724
0.31565145 -0.0073712897 0.061330073
0.31681642 -0.0021720447 0.056363866
0.30296037 0.0070008738 0.054839876
0.29579085 0.01103433 0.056464154
0.2921285 0.01793156 0.054632995
0.28780839 0.027410971 0.055361953
0.3214294 -0.015813332 0.066170745
0.31379417 -0.0085232006 0.064584747
0.30969045 -0.0056543062 0.064673081
0.30010116 0.0020432991 0.062545039
0.29393104 0.0087806107 0.06392093
0.29053631 0.01507728 0.062566906
0.28604957 0.025850985 0.062360693
0.32439247 -0.02588488 0.078635268
0.31622455 -0.016132211 0.071113713
0.30761409 -0.014645797 0.074952565
0.29969606 -0.0044861003 0.071423531
0.29604492 0.0016696976 0.070928641
0.28859106 0.013751934 0.070341207
0.28457642 0.024515796 0.070242062
0.32747886 -0.029757438 0.083152696
0.31854212 -0.027478991 0.086290047
0.31283185 -0.023175815 0.083767325
0.30397803 -0.015560132 0.081427418
0.29588696 -0.0065749539 0.084276952
0.29431328 -0.00029258654 0.079665542
0.28746957 0.011261969 0.077638343
0.28360763 0.019832708 0.078630105
0.32908109 -0.038894881 0.09868706
0.31499016 -0.029446449 0.0919047
0.31093186 -0.029369012 0.09352126
0.30009001 -0.018995071 0.092468962
0.29603466 -0.0096338661 0.087763011
0.28542644 0.0096479999 0.084647611
0.28086641 0.016386693 0.088786274
0.32060096 -0.03761987 0.098562568
0.31962278 -0.036682703 0.098477863
0.30588004 -0.027479956 0.094773926
0.29981568 -0.019910382 0.094623186
0.29255146 -0.013104038 0.096792899
0.28661335 0.0002235086 0.09315706
0.28185448 0.0051535317 0.096867502
0.27897814 0.013785116 0.096933953
0.31382564 -0.04084583 0.10715631
0.30536458 -0.035423841 0.10826873
0.30133644 -0.029300608 0.10320123
0.29548857 -0.021094751 0.1024638
0.29041877 -0.015407491 0.10373646
0.28573614 -0.010044372 0.1072971
0.27915004 0.0028715713 0.10449847
0.2757681 0.011888649 0.10602264
0.3187944 -0.046482418 0.11469756
0.30189949 -0.038347863 0.11624864
0.29748005 -0.032102711 0.11369071
0.29764587 -0.028653624 0.10969346
0.29267806 -0.022186363 0.10929337
0.28149763 -0.0036686757 0.10750654
0.27683446 0.000542072 0.11242587
0.27267379 0.010324048 0.11321568
0.30754822 -0.044272054 0.11863003
0.30146569 -0.038666502 0.11801828
0.29511756 -0.034345575 0.12206179
0.28955612 -0.027205499 0.12160841
0.29069805 -0.024482485 0.11621423
0.27872196 -0.0067169238 0.11875521
0.27486372 -0.0016258648 0.1197142
0.27009356 0.006774839 0.11904084
0.31320134 -0.051739842 0.13405031
0.30738863 -0.049781326 0.13231698
0.30036899 -0.040919926 0.12544511
0.29493806 -0.034923457 0.12454271
0.28813276 -0.028391462 0.12690006
0.2852861 -0.023107275 0.12677759
0.28098646 -0.015736226 0.12740466
0.27667961 -0.0092820246 0.12647121
0.27219757 -0.0028651524 0.1259547
0.2668516 0.0042765965 0.12494975
0.316576 -0.056328539 0.14335683
0.30436471 -0.04892895 0.13976261
0.29762173 -0.043750219 0.13721034
0.29399014 -0.037715618 0.13151379
0.28819099 -0.029226542 0.1291637
0.283519 -0.023316285 0.13358983
0.27983159 -0.017440619 0.1326569
0.27464646 -0.010917071 0.13267383
0.26853135 -0.0065678419 0.13641742
0.26481196 0.0001681601 0.13201781
0.32091162 -0.061748087 0.15313789
0.31173298 -0.056437626 0.14963733
0.30377162 -0.050349027 0.14641476
0.29569027 -0.046301886 0.14768718
0.29116413 -0.040393356 0.14591707
0.28591612 -0.030763354 0.14258128
0.28274298 -0.024656048 0.13946241
0.27811268 -0.018998392 0.13944751
0.26638487 -0.0087211523 0.14111422
0.26079503 -0.0033938633 0.13883747
0.30904946 -0.055760719 0.15630504
0.30314425 -0.051864639 0.15329912
0.29808503 -0.047462974 0.15211548
0.27672923 -0.020806152 0.14739741
0.2704978 -0.015894219 0.14901993
0.25905907 -0.0038717026 0.14548481
0.31788686 -0.064811192 0.16643503
0.31040815 -0.059123911 0.16303416
0.299786 -0.052512221 0.16463298
0.29718935 -0.048817281 0.16388014
0.25945747 -0.0043044616 0.1545814
0.32919091 -0.072738007 0.18010572
0.31773785 -0.067321278 0.17573024
0.30803052 -0.060911983 0.17104407
0.2794489 -0.028310087 0.16720344
0.26056859 -0.0034534819 0.16305543
2.5942292 0.50591511 1.607012
0.31204924 -0.065839268 0.18103519
0.26175633 -0.0023704199 0.17166242
0.30778107 -0.063533232 0.18684165
0.29879552 -0.054636054 0.18678071
0.28677168 -0.040956724 0.1832592
1.2676243 -0.61964476 0.60666281
1.2449386 -0.59447712 0.60407317
2.4714594 0.51800281 1.6626077
2.4053671 0.55207872 1.6813657
2.3890727 0.60579437 1.6824461
0.42691198 -0.0047337953 0.098720998
0.40309182 -0.02162936 -0.087661393
0.42867604 -0.049218897 -0.027834192
0.42711711 -0.043931242 -0.059214849
0.42752925 -0.039908361 -0.057608429
0.42652413 -0.038681235 -0.059221722
0.42781222 -0.040141538 -0.056238137
0.43532425 -0.04536739 -0.04284
0.44047749 -0.042129375 -0.027871398
0.40325105 -0.044130143 -0.062380943
0.42439768 -0.039222565 -0.058556195
0.42643318 -0.045998812 -0.055007368
0.42580217 -0.041075706 -0.055290703
0.43353125 -0.045963828 -0.041436978
0.4307428 -0.044830929 -0.054801334
0.43069246 -0.042417608 -0.054280356
0.43705475 -0.046107519 -0.024037486
0.43088675 -0.042216387 -0.053405795
0.43704745 -0.042793795 -0.041602273
0.44324648 -0.041413561 -0.02440732
0.44087383 -0.038638432 -0.027773889
0.44341791 -0.041339807 -0.024061587
0.44326499 -0.035271082 -0.016850166
0.47817916 -0.066725574 0.030467184
0.48750892 -0.066047683 0.043136846
0.48557404 -0.063375175 0.04098006
0.47651908 -0.052309025 0.037144311
0.37789124 -0.19011794 -0.17504437
0.47729433 -0.057104141 0.039815281
1.3079544 -0.6696651 0.28094277
1.358649 -0.67303777 0.1533875
1.3543528 -0.67237115 0.1864832
1.3323833 -0.67062533 0.25527823
1.3554446 -0.67566395 0.20368186
1.3231273 -0.67114037 0.28639624
1.2591028 -0.63480181 0.56787014
2.4620976 0.71442169 1.6674342
1.243269 -0.67257077 0.56233734
1.314714 -0.67093813 0.305121
1.2649688 -0.63068116 0.5881961
1.3108572 -0.65716195 0.42986783
1.2243782 -0.64205289 0.53049761
1.2211417 -0.66738045 0.50666547
1.2148231 -0.6635353 0.48486108
2.5641649 0.75089228 1.6310188
2.4769032 0.7304002 1.6738459
0.43038738 -0.14428473 -0.1334624
0.4165293 -0.11036195 -0.13100189
0.41618758 -0.10762057 -0.13016666
0.42352849 -0.16018623 -0.13796988
0.42251354 -0.15039366 -0.1371824
0.41512141 -0.1203435 -0.11619737
0.47681165 -0.052865192 0.04635438
0.38402578 0.023483664 -0.13173759
0.38443494 0.022322411 -0.13016336
0.38521084 0.018911483 -0.11816289
0.39993542 -0.017881855 -0.095407948
0.40230879 0.068353467 0.033244699
0.39808854 0.078029729 0.037099928
0.39668468 0.088802464 0.035698529
0.40076602 0.061107133 0.042608801
0.39781129 0.068574257 0.042796772
0.47094354 -0.046691801 0.059516001
0.46338266 -0.03586749 0.064689465
0.39980853 0.047820754 0.056002218
0.4589242 -0.039751917 0.070429668
0.38463855 0.012039229 -0.12284234
0.38193762 0.018642843 -0.12080976
0.37612709 -0.17142932 -0.17720035
0.39932039 0.071836926 -0.030988792
0.38112271 0.11760834 0.038736325
0.38127905 0.1301243 0.037404157
0.46027517 -0.016577428 0.042999435
0.44874129 -0.045936581 0.067213655
0.41482517 -0.024132729 -0.081600942
0.4199526 -0.037615739 -0.074495666
0.41777635 -0.030599099 -0.076889336
0.38905182 0.015125663 -0.12076012
0.39443839 0.0020926599 -0.11151688
0.39276645 0.0057323226 -0.11316605
0.39276671 0.0086960122 -0.11484298
0.38931257 0.018598666 -0.11476606
0.39523715 0.0017429068 -0.10947141
0.39297232 0.0052878452 -0.11046758
0.38944009 0.018844381 -0.11420457
0.40197378 -0.016101329 -0.10060794
0.40315521 -0.017869497 -0.09689638
0.44913736 -0.042802315 0.0034131326
0.45242727 -0.041987132 0.0087679941
0.45602417 -0.040651679 0.017096383
0.46940705 -0.040350184 0.037165593
0.47036824 -0.038492113 0.038711138
0.47900906 -0.040297382 0.050408442
0.37316462 0.013337329 -0.22746101
2.6279225 0.75416696 1.6805862
0.48479891 -0.038561691 0.057669625
0.40994594 -0.023541683 -0.080778107
0.42696977 -0.041623209 -0.045165289
0.41134644 0.041248947 0.061511714
0.44494045 0.0044493899 0.091736384
0.44478106 0.0060978141 0.092755236
0.43600067 0.015204384 0.092946358
0.43984413 0.0048368005 0.104871
0.42592984 -0.040648788 -0.038476188
0.40651616 0.03666446 0.066890173
0.42975435 0.0090668444 0.089257866
0.33156911 0.035700288 0.10121857
0.32328525 0.0027450405 0.17350438
0.34347466 -0.026212385 0.18917292
0.33753827 -0.020651503 0.18646514
0.33303308 -0.016837632 0.18479981
0.32093343 -0.00018600469 0.18257922
0.31485504 0.011054046 0.17908114
0.42432538 0.027963424 0.083476163
0.37709773 -0.18034507 -0.17738874
0.41091686 -0.034440674 -0.050576411
0.40602243 0.0021775994 0.093100533
0.34677348 -0.021658959 0.15297279
0.34180823 -0.016731538 0.15102737
0.36420146 -0.040782832 0.18042497
0.36767489 -0.046148211 0.19384164
0.3662298 -0.043572981 0.19106808
0.30780616 0.017919846 0.16933265
0.30265051 0.028591005 0.16927682
0.36698976 -0.032733511 0.14691913
0.3088741 0.022952499 0.15484385
0.2982547 0.023490753 0.17114902
0.29671571 0.0220892 0.17296353
0.38730219 -0.063098282 0.23719655
0.30143061 0.019526377 0.16176203
0.38358286 -0.052016567 0.20909712
0.29969168 0.025725495 0.17540573
0.2972585 0.031378586 0.17658323
0.35620761 -0.042374749 0.20718685
0.34819844 -0.037318151 0.20069969
0.2968249 0.027563021 0.18209259
0.2954925 0.029012479 0.18350679
0.35333046 -0.042566959 0.21548142
0.34557915 -0.038279992 0.20881827
0.29756126 0.025623029 0.1913323
0.29631805 0.027527343 0.18441887
0.35411838 -0.043465964 0.22052048
0.34560928 -0.037935272 0.21378843
0.33943292 -0.032567155 0.21726394
0.29848012 0.024886822 0.20189562
0.29795197 0.027357545 0.20145924
0.42798471 -0.037246615 -0.066435024
0.42634323 -0.029555324 -0.066271774
0.43346003 -0.034692645 -0.047674477
0.43712732 -0.034798216 -0.03620775
0.43690518 -0.03441276 -0.036649596
0.43488169 -0.025601124 -0.036391046
0.41779691 -0.020894581 -0.077706285
0.42506358 -0.028400799 -0.062531143
0.45268726 0.010767828 0.07611005
0.4163458 0.044065569 0.05357109
0.44281346 0.017481757 0.082854509
0.43782678 0.024166521 0.086463749
0.4253625 0.031062573 0.078411661
0.42106646 0.033641241 0.0790741
0.43964994 0.020365916 0.090743944
0.29929182 0.02107697 0.14348127
0.43240181 -0.038744982 -0.037384134
0.43936911 -0.035584815 -0.036352322
1.3309685 -0.64737636 0.24654523
1.3129549 -0.64563322 0.2819992
1.3090205 -0.64561766 0.31007633
1.3866603 -0.7159754 0.15696077
1.3164598 -0.64587319 0.26913509
1.3900448 -0.71530735 0.1391851
1.211486 -0.64174783 0.54517019
1.3519728 -0.69089866 0.13412575
1.3507849 -0.69058168 0.13696554
1.3537627 -0.68626046 0.16142088
1.3183812 -0.63868016 0.41205391
1.2320091 -0.69239324 0.54084659
1.2131028 -0.66025382 0.53653926
1.2040309 -0.69454741 0.5039103
2.5927947 0.78508133 1.6874565
0.43007916 -0.027180037 -0.02536726
0.39260548 0.011430886 -0.093155302
0.39661002 -0.005643242 -0.091331877
0.3945193 -0.0073868134 -0.082784474
0.40110421 -0.0062743234 -0.060732193
0.38643974 0.004152304 -0.10029482
0.44025698 -0.02424968 -0.0075073149
0.44106317 -0.025650572 -0.0049401443
0.46101442 -0.0037446665 0.061594851
0.42738378 -0.020332679 -0.044007339
0.42737812 -0.017457047 -0.034894586
0.42770529 -0.016570384 -0.03399187
0.43661916 -0.017974308 -0.014661477
0.43550825 -0.016547479 -0.018484956
0.43634379 -0.013104115 -0.015845174
0.43973109 -0.033661578 -0.0036264653
0.43707687 -0.0146937 -0.010640136
0.43618804 -0.0087854099 -0.0076819267
0.44556877 -0.040599097 0.0033712198
0.43947682 -0.026314909 -0.0015708572
0.43662247 -0.0052576438 -0.0004145405
0.39628202 0.010422023 -0.10232244
0.40017071 -0.0052510244 -0.098586321
0.3978602 -0.0017353164 -0.10403626
0.39816764 0.010499845 -0.098244712
0.40079993 -0.0052645304 -0.095968209
0.4011097 -0.0013367846 -0.095592111
0.3986136 0.008416594 -0.09513972
0.40275645 -0.0040268917 -0.091590591
0.40230873 -0.0014887974 -0.092068963
0.39919549 0.0083852718 -0.09224382
0.40086198 0.0085180327 -0.08675281
0.40313315 0.0061087837 -0.083862104
0.40353155 0.0097681368 -0.075368308
0.40521336 0.0022110255 -0.080137894
0.40406793 0.0091324225 -0.074781656
0.40864927 0.0014118268 -0.068538256
0.41127518 -0.0028819307 -0.06257835
0.4506456 -0.02555047 0.077034026
0.41133744 -0.026702737 -0.047187988
0.42225412 -0.018622642 -0.047924452
0.41280907 0.0063897185 -0.053382359
0.45032394 -0.038541138 0.0034417934
0.44693458 -0.033141095 0.00025563734
0.45199794 -0.036806364 0.008835352
0.42226988 -0.034016393 -0.016146615
0.42280298 -0.044606831 0.0016988377
0.47049266 -0.19701745 -0.038932424
0.4410055 -0.026321499 -0.021075776
0.44068256 -0.023875289 -0.020776402
0.44217017 -0.025899885 -0.014378616
0.42709628 -0.019361077 -0.051247083
0.43749174 -0.024153225 -0.02487625
0.48612615 -0.062921315 0.042626023
0.40869838 -0.0046910928 -0.080305234
0.40695587 0.00018476773 -0.081477836
0.44701722 -0.036860123 -0.014539511
0.44688347 -0.032980591 -0.01389343
1.4050554 -0.63259917 0.094407402
1.3196888 -0.68306857 0.31637526
0.4560377 -0.0058555552 0.063111745
0.39530349 0.10467109 0.04111832
0.39938137 0.082152687 0.045340527
0.3975389 0.090992689 0.04540839
0.39480618 0.10282363 0.044122025
0.4014504 0.06846001 0.052296914
0.39866355 0.078402169 0.050836354
0.46011299 -0.020458506 0.071822584
0.39097521 0.10671203 0.03965373
0.38837108 0.1150682 0.042161323
0.39103255 0.097926006 0.046866629
0.38854977 0.10923073 0.050404914
0.38752678 0.11960813 0.052330814
0.38895804 0.09865994 0.052262791
0.38851616 0.10099666 0.053714439
0.38736388 0.11364949 0.053183969
0.46720931 -0.005178954 0.065122016
0.46171349 -0.0074154283 0.062119052
0.39690188 -0.01902841 -0.093061395
0.40437946 -0.006826147 -0.065960616
0.38349584 0.11986218 0.051323719
0.38297564 0.13159248 0.051683113
0.38948593 0.083992876 0.045834068
0.38335672 0.1197886 0.05212542
0.38265055 0.13271466 0.05370295
0.4654721 -0.013400832 0.045126729
0.46667063 -0.0054115388 0.057826474
0.46529093 -0.0038529348 0.055190738
0.44336298 -0.033561144 0.012630112
0.42722002 -0.016650785 -0.047765199
0.39916706 0.0060665971 -0.099661864
0.41226655 -0.0025365599 -0.064401373
0.41900864 -0.012976285 -0.058565572
0.41843548 -0.010264514 -0.055490702
0.40650231 -0.015672849 -0.060520206
0.4501569 -0.024995968 0.010493862
0.47291136 -0.012018241 0.050866872
0.47616389 -0.01069294 0.05880392
0.47300896 -0.012390784 0.065004408
0.34992284 -0.0087625422 0.18654963
0.34353563 -0.0034854203 0.18400936
0.3399522 0.0025742119 0.18168469
0.48430714 -0.025006415 0.061472077
0.33798718 0.0046177395 0.18015377
0.33512786 0.012944251 0.17524441
0.33116463 0.018653108 0.17523924
0.33017921 0.022171913 0.17441939
0.32663271 0.029055972 0.17451422
0.409632 0.063203081 0.053749148
0.40089756 0.077645674 0.061443131
0.3980526 0.092269085 0.060959011
0.39746234 0.095476389 0.059604462
0.41632938 0.048611838 0.063310072
0.40647835 0.058234468 0.065483287
0.40204316 0.06764245 0.065543108
0.40116814 0.076512314 0.062138323
0.39964283 0.083125301 0.062285416
0.39752129 0.087282196 0.061479263
0.39699113 0.095169209 0.060967308
0.41342726 0.047286425 0.070639931
0.4086296 0.052955978 0.06998264
0.39969534 0.060930997 0.074278414
0.40047753 0.065952495 0.070364974
0.39665017 0.076443754 0.070827924
0.39539161 0.07972125 0.070914388
0.39457041 0.086900935 0.071260989
0.39402291 0.091330402 0.070081167
0.41020659 0.044544626 0.079899758
0.40789142 0.045502212 0.079386421
0.39940584 0.053005815 0.078882515
0.3954047 0.060329154 0.078641638
0.39029017 0.067253657 0.078211859
0.3856791 0.068526879 0.078900926
0.40300626 0.036975987 0.087914638
0.3956944 0.039908044 0.087043427
0.38683975 0.05336782 0.086517908
0.38541615 0.062762387 0.084692866
0.38095865 0.066961981 0.085554004
0.38320756 0.075424016 0.079146318
0.43781179 0.014513424 0.10398056
0.40074319 0.034968227 0.090638161
0.38612315 0.035145827 0.091531202
0.3838602 0.039161172 0.090730011
0.37777829 0.063947387 0.088879474
0.37726292 0.064126827 0.088808991
0.37410596 0.0764388 0.089214429
0.43411607 0.012065591 0.11125354
0.39380085 0.023505764 0.09925162
0.38757208 0.024855794 0.099279962
0.38594538 0.031145003 0.095325343
0.38129282 0.036077399 0.094217189
0.3698847 0.037822206 0.095749922
0.37055042 0.047629774 0.093441084
0.36537561 0.052579582 0.092888281
0.35835287 0.054536585 0.094200991
0.37069196 0.073640786 0.08963082
0.38787234 0.019331539 0.10497051
0.38441432 0.022032581 0.10242276
0.37838227 0.027818685 0.10169198
0.37391031 0.029347187 0.10086009
0.3668392 0.034592565 0.099480115
0.36487356 0.035672955 0.099055767
0.35462928 0.040175516 0.097415589
0.35756156 0.053638056 0.094471164
0.35088035 0.052833222 0.096434772
0.39557609 0.011802466 0.11460742
0.38347015 0.014341856 0.11289138
0.37876979 0.016923891 0.11087386
0.37296239 0.021589069 0.10952514
0.36865181 0.024069143 0.10798824
0.36035523 0.028804196 0.106103
0.35753199 0.029195331 0.10511313
0.35042188 0.036782604 0.10032506
0.34387723 0.0444928 0.10264681
0.34255177 0.046265054 0.10314461
0.38645729 0.0089788996 0.12088522
0.37912044 0.012304643 0.11874031
0.3742907 0.013736681 0.118228
0.36957508 0.016643478 0.1160365
0.36383823 0.01988362 0.11179181
0.3572976 0.025989305 0.10879138
0.35296315 0.028489335 0.10831249
0.35009873 0.036562346 0.10084435
0.34697756 0.036736824 0.10633351
0.3418082 0.044316947 0.10830885
0.38455641 0.0061140684 0.12907003
0.380665 0.0069360351 0.12442879
0.37101221 0.010398352 0.12136199
0.36667919 0.013126621 0.11960353
0.35949966 0.017698294 0.117569
0.35409045 0.022493431 0.11641812
0.34955308 0.027211079 0.11616118
0.3466146 0.034858089 0.1123202
0.34665743 0.03522411 0.10923877
0.34140393 0.043335646 0.11174997
0.39285222 -0.00220137 0.13997523
0.39170477 0.00030302492 0.13802175
0.38090163 0.0037653234 0.13184646
0.37317324 0.0053882729 0.13018942
0.36820498 0.0068214186 0.12810121
0.36055791 0.011172764 0.12678356
0.35717189 0.012962076 0.12564233
0.35195616 0.019781321 0.12496624
0.34836558 0.026600776 0.12328084
0.34675404 0.028302684 0.12284698
0.34349066 0.034774564 0.11997158
0.34070206 0.041785538 0.11692314
0.38813964 -0.0021619892 0.1437054
0.37603122 -0.00056120695 0.14000954
0.36992362 0.0015106322 0.13593246
0.35936719 0.0084869908 0.13517083
0.35575777 0.011265447 0.13151945
0.35145828 0.019291345 0.12628683
0.35021159 0.020725789 0.12598729
0.34470779 0.030090215 0.12471468
0.34003052 0.040168457 0.12449232
0.33910325 0.042616948 0.12247398
0.38008595 -0.0066874828 0.15159795
0.3688893 -0.0021759158 0.14660458
0.36733955 0.0010476011 0.1381951
0.3558189 0.0079622557 0.14167209
0.35203475 0.015117146 0.1363119
0.35032538 0.017488578 0.13451754
0.34920913 0.019063585 0.13424288
0.34399775 0.028110595 0.13397755
0.34261963 0.033021003 0.12691382
0.33820549 0.041572735 0.12979722
0.36758909 -0.0045755864 0.15068081
0.36429536 -0.0023467534 0.14684971
0.35546139 0.0061864983 0.14450806
0.35246605 0.0088905832 0.14287041
0.34714928 0.016023537 0.14355849
0.34385332 0.023283934 0.14301845
0.34290752 0.026652478 0.13912113
0.33980364 0.03347376 0.1379936
0.3374109 0.038887359 0.13866723
0.36700171 -0.0081832698 0.15596095
0.36067709 -0.0028347643 0.1540509
0.35332537 0.0044873129 0.15156844
0.34811604 0.010771547 0.15145741
0.34656322 0.015309107 0.14634342
0.34325084 0.022508867 0.14565209
0.34289172 0.022977674 0.1455707
0.34038579 0.02756785 0.14358582
0.33626336 0.03827972 0.14296344
0.37699798 -0.01272624 0.17071795
0.3682856 -0.010224831 0.16502462
0.35127494 0.0023439301 0.16005622
0.34938475 0.0042593009 0.15931138
0.34546474 0.013584952 0.15138441
0.34186199 0.019376563 0.15344647
0.34044325 0.023190254 0.15112276
0.33796951 0.028225075 0.15138751
0.33443505 0.03728414 0.1488602
0.36354706 -0.012239766 0.17188019
0.35781944 -0.0083822869 0.17088147
0.34967968 0.00012063628 0.16641137
0.34732696 0.0081811305 0.15860187
0.34361729 0.011629201 0.15904285
0.33990839 0.017866865 0.15931751
0.33621991 0.025392625 0.15893193
0.33650097 0.028733857 0.15479025
0.33173943 0.034614608 0.15937901
0.38785049 -0.023991536 0.19467296
0.38203362 -0.020767501 0.19055627
0.37251997 -0.017432496 0.18166111
0.36584604 -0.014964909 0.17702748
0.35554659 -0.0081537031 0.17367667
0.35226077 -0.006202213 0.17545369
0.34725213 -0.00010583401 0.17126204
0.34693208 0.0021846814 0.16733524
0.34194809 0.0087388111 0.1664321
0.33870968 0.016275039 0.16454929
0.33591861 0.023550523 0.16157019
0.33447289 0.026954178 0.16153647
0.33285365 0.028924894 0.16244151
0.38125527 -0.021452423 0.1918038
0.3686161 -0.016262172 0.190147
0.36031601 -0.014008649 0.18228646
0.35770825 -0.012535447 0.18060531
0.35081661 -0.0069752322 0.17827563
0.34658992 -0.00065333641 0.17320961
0.34079048 0.0051809968 0.17612953
0.34053779 0.0074312761 0.17218177
0.33612484 0.014070146 0.17193848
0.33380675 0.021545056 0.16791628
0.33280894 0.024141524 0.16788392
0.32914957 0.029661454 0.16854531
0.39349368 0.090694308 0.061241146
0.39063725 0.10198498 0.066343151
0.39127383 0.10338128 0.06517756
0.38905853 0.11660331 0.064311326
0.39015988 0.10250504 0.066621765
0.3950856 0.049214102 0.077264503
0.39113766 0.056059089 0.077865027
0.37583676 0.071804322 0.07988774
0.36955413 0.081663497 0.085226193
0.38111627 0.048982047 0.086397544
0.36513302 0.076720051 0.092406131
0.40182588 0.017152198 0.098443419
0.34908774 0.051206429 0.09446869
0.36389637 0.075830467 0.090393931
0.34779611 0.049065642 0.095737264
0.35598108 0.067023955 0.09842182
0.39209601 0.00072316383 0.11935712
0.37714621 0.0047502979 0.11621265
0.34000346 0.0307163 0.11639909
0.33598945 0.039797228 0.11433448
0.33255148 0.049322948 0.11827894
0.34012038 0.024769554 0.13022682
0.33609214 0.03714288 0.12350214
0.33131266 0.046991762 0.12826289
0.37510231 -0.011149526 0.14595366
0.33477369 0.035867147 0.13262638
0.33359152 0.036180846 0.13496763
0.32970676 0.045196377 0.13633287
0.33072704 0.037521504 0.14114055
0.32931548 0.0437598 0.13920888
0.37960711 -0.016971458 0.15922314
0.36899292 -0.014825273 0.1554464
0.33050191 0.032586556 0.15016606
0.32629845 0.043283686 0.1483714
0.37199309 -0.018902075 0.1665955
0.32823765 0.035782423 0.1513444
0.3275069 0.035932399 0.15276524
0.36822224 -0.019283935 0.16712375
0.32667547 0.03387602 0.15724376
0.32419303 0.038538836 0.15955111
0.34005278 -0.00070589827 0.16865177
0.32189521 0.037922718 0.16537832
0.34171906 -0.0055387644 0.17691486
0.31964201 0.030117009 0.1739957
0.3338441 0.0010622466 0.17834526
0.32579672 0.01619141 0.1769478
0.3231481 0.018695159 0.17709173
0.32241213 0.026534533 0.17271248
0.31884575 0.027094724 0.17636292
0.391303 -0.0410197 0.21526054
0.38074318 -0.035624381 0.20996687
0.37191123 -0.031322103 0.20787802
0.36013651 -0.026861034 0.20332275
0.35251462 -0.022600111 0.19498719
0.32577124 0.012835375 0.17949185
0.32237723 0.018621951 0.17939897
0.31870383 0.026654772 0.17791265
0.41803488 -0.022090815 -0.053677801
0.38866878 -0.032155398 0.21480446
0.38764662 -0.031916939 0.21220827
0.38127923 -0.026545674 0.20323777
0.3783401 -0.024604438 0.20208718
0.36839586 -0.019862967 0.19644876
0.35981685 -0.016462957 0.19069339
0.39315262 -0.0076251882 0.13267773
0.38526297 0.12110075 0.064046271
0.38538539 0.13294664 0.065606274
0.39715001 0.04865133 0.067410581
0.38162515 0.12428325 0.075405389
0.36810184 0.034476105 0.086125441
0.36391824 0.082441524 0.086882494
0.36334753 0.039255947 0.088066489
0.35967919 0.086708821 0.090718441
0.37835976 -0.0062261852 0.12382463
0.32905215 0.044664189 0.11639907
0.32616857 0.054612178 0.12182052
0.32583803 0.055393338 0.1227354
0.32464725 0.064298488 0.12297867
0.32620782 0.041956678 0.13383077
0.32561117 0.054206196 0.12439361
0.32533008 0.054915465 0.12430917
0.32354644 0.062773749 0.12826906
0.37568742 -0.018472683 0.14706641
0.32516921 0.045519471 0.13300481
0.32314155 0.053228706 0.1337207
0.32476056 0.032746889 0.1471719
0.32119358 0.048274785 0.14376749
0.31953833 0.05991672 0.14245071
0.32113156 0.041506272 0.14821264
0.31889132 0.050658669 0.14910324
0.31749132 0.051197633 0.15038852
0.3178333 0.043450892 0.15698808
0.31518066 0.051769782 0.15692903
0.32035634 0.027576208 0.16283412
0.3163895 0.039845388 0.16242649
0.31236717 0.049049921 0.16307187
0.31343323 0.036590297 0.16943067
0.31167167 0.038743991 0.17028607
1.1733686 -0.75719756 0.48100245
1.1788534 -0.80575818 0.35773468
1.1704558 -0.75026208 0.53201759
1.1761869 -0.7970081 0.5537467
1.1744694 -0.73045814 0.59932637
1.1719737 -0.70577556 0.60227227
0.43951246 -0.15072502 -0.09833958
0.4443633 -0.14569367 -0.0991657
0.3932988 -0.14373204 -0.17689854
0.38258818 -0.16996996 -0.19928433
0.38590232 -0.12860245 -0.21020095
0.38301331 -0.13415155 -0.20916545
1.2507913 -0.51391399 -0.053249739
0.43228269 -0.1519116 -0.097680539
0.42086563 -0.1007373 -0.093507767
0.43500066 -0.14939861 -0.088834368
0.42070869 -0.076769046 -0.080313459
0.44734672 -0.079590723 -0.013740418
0.44702429 -0.1436384 -0.04513742
0.44889513 -0.087921187 -0.00055746525
0.40985924 -0.16905542 -0.17891435
0.44834754 -0.075898983 0.0077603413
1.2562237 -0.51028633 0.48111269
1.2544626 -0.5325346 0.47169101
1.1712902 -0.78249466 0.21699488
1.1697748 -0.77931666 0.25283962
1.1644702 -0.78068453 0.28694373
1.247189 -0.53667265 0.040159184
1.2413042 -0.52957839 0.060831461
0.39135525 -0.10350174 -0.21108565
0.39146265 -0.098718308 -0.21173316
0.39339533 -0.092751734 -0.21256377
0.38970011 -0.11720635 -0.21215026
0.39114243 -0.10979052 -0.2123654
0.38866001 -0.10731699 -0.21157542
0.3704192 -0.15456764 -0.20496632
0.37403083 -0.1510057 -0.20682225
1.1741036 -0.74232239 -0.010378977
1.1719748 -0.75799054 0.0039978353
1.1696486 -0.75358576 0.097826257
1.1737396 -0.76110536 0.033435795
1.1642052 -0.6985116 -0.19284418
0.40382728 -0.16336036 -0.17660049
0.39498138 -0.16586815 -0.17637487
0.41882318 -0.084815823 -0.085132994
0.41476563 -0.066344164 -0.086098343
0.41810474 -0.074840292 -0.079667471
0.42184079 -0.067354307 -0.065183088
0.43945196 -0.13991757 -0.059362132
0.39398018 -0.10491491 -0.2049152
0.39475533 -0.099472344 -0.20496948
0.39516652 -0.091970712 -0.20478615
0.39560744 -0.089349769 -0.20496574
0.39570731 -0.082271941 -0.20504552
0.39707294 -0.098668918 -0.19808841
0.39760277 -0.091318242 -0.19823813
0.39773807 -0.08321815 -0.19790585
0.39785907 -0.081360593 -0.19828868
0.39834064 -0.097488768 -0.19579194
0.39882603 -0.090096511 -0.19547415
0.39850387 -0.082324423 -0.19578725
0.39881808 -0.080129884 -0.19579476
0.40045512 -0.081539676 -0.18890709
0.40044042 -0.079390205 -0.1890495
0.40209079 -0.099887639 -0.18721548
0.40215597 -0.08135356 -0.18240657
0.40275621 -0.079125516 -0.18100378
0.40294579 -0.081034496 -0.17915423
0.40317106 -0.073637702 -0.17862523
0.40547529 -0.086794831 -0.17433888
0.40576297 -0.079189725 -0.17140475
0.40543854 -0.073445477 -0.17116053
0.40645412 -0.081906579 -0.16923369
0.40637183 -0.07903076 -0.16916203
0.40544623 -0.070157237 -0.17016438
0.40929836 -0.088464104 -0.16165139
0.40866569 -0.08035329 -0.16215329
0.4088273 -0.07777378 -0.16210851
0.4084138 -0.068759352 -0.16160989
0.41197306 -0.12401239 -0.15982094
0.41218334 -0.118944 -0.15920885
0.41198814 -0.10790603 -0.15845941
0.41060939 -0.095957488 -0.1582593
0.41063046 -0.088081978 -0.15753727
0.41024217 -0.079114564 -0.1572043
0.41199014 -0.075127825 -0.15380563
0.41058406 -0.067798428 -0.15574074
0.41606331 -0.12523367 -0.15289974
0.41578126 -0.1179195 -0.15251257
0.41531262 -0.11449286 -0.15366217
0.4130635 -0.093199134 -0.15105954
0.41252166 -0.087080531 -0.15171339
0.41218907 -0.078361951 -0.15001731
0.4124355 -0.075680628 -0.15009661
0.41231522 -0.068311371 -0.14975354
0.39411995 -0.17626691 -0.17557152
0.40647966 -0.09679199 -0.12645395
0.44379556 -0.14286385 -0.048669469
0.39543834 -0.1391833 -0.17239258
0.42865333 -0.083777174 -0.052080914
0.42569107 -0.16159691 -0.11535121
0.42360288 -0.16108458 -0.1164225
0.42914388 -0.15076014 -0.096761279
0.42448437 -0.073079415 -0.054462358
0.417494 -0.10843956 -0.14787956
0.41758868 -0.10333424 -0.14524034
0.41509572 -0.096559547 -0.14795658
0.41491789 -0.088951349 -0.14411084
0.41454265 -0.086648718 -0.14398518
0.41328892 -0.077825256 -0.14724049
0.41394916 -0.075491421 -0.14460519
0.41332671 -0.067959465 -0.14646229
0.41977474 -0.10836328 -0.14148349
0.41986361 -0.10694999 -0.14074841
0.41833255 -0.09984123 -0.13988537
0.41734093 -0.095991485 -0.13998973
0.41575456 -0.08869911 -0.13974746
0.41585624 -0.08556693 -0.13478558
0.41474894 -0.077764742 -0.1389529
0.41484371 -0.074685894 -0.13844159
0.41439342 -0.067218177 -0.13961123
0.42010391 -0.10701518 -0.13407257
0.41722125 -0.09197551 -0.13277085
0.41698825 -0.089697666 -0.13259986
0.41572154 -0.07889729 -0.13394243
0.4166083 -0.078068495 -0.1252999
0.41519088 -0.070203893 -0.1330245
0.41494149 -0.064712971 -0.13237083
1.2975965 -0.52431369 0.1040887
1.2654679 -0.51306129 0.10447253
1.2678826 -0.51253694 0.088224173
1.4615576 -0.44984958 0.41240713
1.4187516 -0.44374818 0.42410564
2.6455252 0.57902521 1.5896746
2.7416174 0.62139302 1.6744404
1.3237693 -0.46041003 0.4344981
1.6472716 -0.28298867 0.6116938
1.3715304 -0.43971848 0.44507334
1.4077604 -0.44623819 0.44319144
1.4374666 -0.46921661 0.42418581
1.4681981 -0.42857009 0.44344431
0.36930099 -0.14315966 -0.21177459
0.37695688 -0.14918202 -0.2172233
0.37992939 -0.15396366 -0.21807069
1.1680332 -0.71546328 -0.23822865
1.1664068 -0.7304889 -0.23953548
1.1958021 -0.21087576 -0.19214673
1.1567627 -0.72884756 -0.30884516
1.1557819 -0.69222075 -0.31990588
1.1569527 -0.72929746 -0.32705936
1.1577692 -0.74933362 -0.37473047
1.1589921 -0.75009823 -0.36458036
1.1570568 -0.72266477 -0.35177308
1.1568317 -0.69508535 -0.35086194
1.1586766 -0.75295991 -0.34258386
1.157313 -0.72673178 -0.34502333
1.1563843 -0.69366807 -0.34108621
1.1889582 -0.17334078 -0.19332093
1.1737188 -0.51445013 0.74648201
0.41971335 -0.09924683 -0.12531132
0.41882497 -0.093540929 -0.12533207
0.4179773 -0.085581079 -0.1246539
0.41760769 -0.085188143 -0.12814316
0.41677088 -0.078325182 -0.12429821
0.41534159 -0.070193261 -0.13247071
0.41575974 -0.06783729 -0.12435319
0.42109674 -0.099352375 -0.12044325
0.41864085 -0.092673197 -0.12432271
0.41801769 -0.086212419 -0.12396444
0.41923565 -0.083495647 -0.11818694
0.4176563 -0.076829545 -0.12076383
0.41779056 -0.068734013 -0.11717781
0.41790113 -0.065622598 -0.11656373
0.42668164 -0.11583854 -0.11094912
0.42327216 -0.09640909 -0.11258659
0.42154473 -0.091871835 -0.1151284
0.42122436 -0.084052652 -0.11189069
0.42137942 -0.082947351 -0.1113668
0.41974545 -0.072567917 -0.11170884
0.41890073 -0.068323947 -0.11330437
0.41857979 -0.061239198 -0.11310175
0.394714 -0.07554581 -0.20503446
0.39501846 -0.072585575 -0.20506544
0.39674053 -0.076013565 -0.19729193
0.39702541 -0.071941093 -0.19743444
0.39744252 -0.072777368 -0.19533004
0.39786804 -0.069535464 -0.19442697
0.39878947 -0.07318271 -0.1885114
0.39939633 -0.069936745 -0.18868826
0.40117118 -0.070729725 -0.18015391
0.40136835 -0.066234857 -0.18014428
0.40158707 -0.070826434 -0.17870836
0.40154511 -0.066143081 -0.17939623
0.40212795 -0.070586033 -0.17602573
0.40301883 -0.067028284 -0.17420408
0.40561089 -0.069147259 -0.16498147
0.40450639 -0.066429026 -0.16940649
0.40700221 -0.068952508 -0.16125046
0.40651742 -0.059939165 -0.16178095
0.41044661 -0.13315938 -0.15818094
0.41035262 -0.11362498 -0.15775985
0.40919113 -0.098041385 -0.15801491
0.40796974 -0.06854333 -0.15816081
0.40847921 -0.061766807 -0.15747686
0.41461644 -0.13471112 -0.15335448
0.41336185 -0.12894453 -0.15354943
0.41164899 -0.097959973 -0.15059134
0.41023827 -0.067515314 -0.1523449
0.41060558 -0.060927168 -0.14988458
0.4116087 -0.060512826 -0.14570519
0.41271257 -0.065332226 -0.13935833
0.41563147 -0.095924228 -0.13248412
0.41466236 -0.086299062 -0.13148446
0.41321349 -0.064718582 -0.13274091
0.4161554 -0.087774888 -0.12430439
0.41408536 -0.070578948 -0.12379669
0.41394109 -0.060249649 -0.12393239
0.4164626 -0.061192926 -0.11369418
0.41867778 -0.063121647 -0.10632516
0.42019197 -0.058386929 -0.099111177
0.43486571 -0.12901349 -0.090560466
0.42698395 -0.088226512 -0.091506332
0.43657985 -0.12974253 -0.086453728
0.42634967 -0.070760474 -0.084033489
0.42914286 -0.078413181 -0.079558201
0.42670366 -0.056854632 -0.07469441
0.42996803 -0.072941862 -0.073594727
0.42761007 -0.058643084 -0.071277492
0.44813183 -0.13579762 -0.06445659
0.45653248 -0.13897096 -0.049745698
0.43994191 -0.088508256 -0.054748669
0.43354133 -0.063498393 -0.058608331
0.46029809 -0.14156686 -0.044521954
0.44042978 -0.085134737 -0.051395386
0.43794388 -0.069025002 -0.049097627
0.44197059 -0.07483612 -0.044151012
0.43940932 -0.067135207 -0.045166105
0.45900089 -0.12006117 -0.031090751
0.44748119 -0.081041731 -0.034206908
0.44828206 -0.066918641 -0.026022974
0.45311114 -0.076357909 -0.016913624
0.44969887 -0.062857084 -0.020034179
0.45666161 -0.079263829 -0.0085016452
0.45511064 -0.078104541 -0.012778485
0.45971343 -0.081540875 -0.00081176672
0.47082743 -0.091911033 0.0094395187
0.45928708 -0.075366721 0.0034481466
0.46531391 -0.094394907 0.0092480006
0.42518741 -0.095514841 -0.10618847
0.42450634 -0.091485068 -0.10638781
0.42277607 -0.086396694 -0.1088906
0.42195037 -0.077197872 -0.10565715
0.42151195 -0.07240364 -0.10572902
0.42046705 -0.066606924 -0.10746303
0.42071438 -0.063338056 -0.1066492
0.44575718 -0.14160952 -0.086968966
0.42863441 -0.080298699 -0.082406349
0.43255541 -0.082973957 -0.072368592
0.43378732 -0.088619724 -0.071413085
0.46055791 -0.092178926 -0.010693229
0.45496067 -0.07915967 -0.014282541
0.46252549 -0.091568686 -0.0070343479
0.46237835 -0.091012143 -0.0068420568
0.47345677 -0.10654427 0.0037769575
0.47406343 -0.10073981 0.0078292843
0.46630135 -0.093790673 0.00089991954
0.41096023 -0.14160606 -0.16710751
0.41277695 -0.1102289 -0.15220134
0.41280219 -0.10253278 -0.15113728
0.39395079 -0.069260031 -0.20449746
0.39390755 -0.062195674 -0.20516112
0.39590344 -0.069704339 -0.1960979
0.39570805 -0.061900523 -0.19762175
0.39637214 -0.069348767 -0.19382361
0.3980552 -0.062314738 -0.18623544
0.4002974 -0.06158815 -0.17574903
1.2913735 -0.51685953 0.069274954
1.2837216 -0.51757944 0.041435059
1.2901859 -0.52016616 0.076670513
1.2889763 -0.51602346 0.027312741
1.2529036 -0.51106381 0.039848749
1.2574445 -0.51039577 0.062432002
1.252991 -0.50924289 0.015135638
1.2532924 -0.50832641 0.015103379
0.42414072 -0.16245471 -0.12058666
0.41194969 -0.065209411 -0.088991821
0.4339264 -0.088544831 -0.042732168
0.45645201 -0.12234943 -0.0087449513
0.44290468 -0.088956729 -0.0037512758
0.44696116 -0.078418911 0.011996775
0.40503147 -0.091197968 -0.16312531
0.40444061 -0.070364878 -0.16202235
0.40736896 -0.077976666 -0.15668276
0.40969455 -0.073784478 -0.14732905
0.41072676 -0.071282439 -0.13957974
0.41077891 -0.061076496 -0.13954678
0.41179743 -0.080133282 -0.13338387
0.41164511 -0.06554646 -0.12393782
0.41639656 -0.091195561 -0.11678331
0.4138639 -0.086422019 -0.12343953
0.41218013 -0.068763115 -0.12230271
0.41214037 -0.065365531 -0.12292864
0.415472 -0.081842311 -0.11602142
0.41796929 -0.085553236 -0.10933492
0.42038721 -0.070986979 -0.095547728
0.4363243 -0.13554122 -0.084480204
0.43026677 -0.084012873 -0.072591104
0.42979571 -0.080836333 -0.072465174
0.42867574 -0.072722986 -0.070417628
